x	y z
3.898431604	-0.368269999	-0.840615898
3.737330105	-0.780598717	-0.852510085
3.575173992	-0.609799237	-0.845252188
3.468455274	-0.45992602	-0.851755047
3.326819835	-0.31532654	-0.849436468
3.162698654	-0.664554092	-0.851274543
3.048932304	-0.522505457	-0.846078922
2.966515286	-0.394157785	-0.850145887
2.898724509	-0.274239827	-0.859933225
23.53545936	-2.27129849	-0.659633083
19.51405312	-4.065780483	-0.716979672
16.04146888	-2.737200968	-0.736974922
13.60849314	-1.817037358	-0.754846091
11.94216829	-1.156480693	-0.774406132
10.49820382	-2.193051598	-0.777984271
9.515195099	-1.62821947	-0.792813949
8.712241612	-1.168386249	-0.804769855
8.141675192	-0.7913094	-0.829599964
7.237557221	-1.517051918	-0.809344422
6.796914906	-1.167103043	-0.820269411
6.366827961	-0.855769407	-0.826249125
5.972397916	-0.582366082	-0.831068102
5.514212748	-1.158738565	-0.826927674
5.288882395	-0.911293989	-0.838981836
4.981045218	-0.672160771	-0.834514428
4.753766503	-0.464040389	-0.841943551
4.45513207	-0.939434895	-0.840333668
4.302463472	-0.744114291	-0.848413581
4.098055234	-0.555774527	-0.844924771
3.894363794	-0.379943673	-0.839986175
3.705320975	-0.78578446	-0.845754553
3.593436594	-0.624265389	-0.850018653
3.472804834	-0.471348979	-0.853174235
3.312332897	-0.324209847	-0.845987447
3.16537362	-0.675262769	-0.852548174
3.053966345	-0.53301791	-0.847925654
2.958619906	-0.402349717	-0.848232995
2.903596397	-0.28369124	-0.861632673
23.52141658	-2.342800164	-0.659437877
19.54157529	-4.134109871	-0.718453457
16.12452801	-2.802310162	-0.741182354
13.57911091	-1.855534701	-0.753528589
11.9504797	-1.194304148	-0.775179026
10.51776858	-2.230836686	-0.779937753
9.465972003	-1.649703927	-0.789130679
8.67704493	-1.190777041	-0.801852386
8.094662076	-0.811816366	-0.82505946
7.22022908	-1.536559369	-0.807930063
6.796236668	-1.188463312	-0.820623702
6.368103008	-0.875839074	-0.826759342
5.975511298	-0.601182165	-0.831754033
5.511599107	-1.175856825	-0.82707287
5.289954015	-0.928198797	-0.839599637
4.980913977	-0.687709088	-0.834842015
4.776817188	-0.481089676	-0.846283485
4.458960235	-0.954539619	-0.841604141
4.280825024	-0.753905358	-0.844598764
4.096330758	-0.56834459	-0.844924771
3.900962298	-0.392672991	-0.841665355
3.70098453	-0.796737773	-0.845318665
3.591504353	-0.635286982	-0.850018652
3.43958337	-0.477591404	-0.845368648
3.366286327	-0.339920523	-0.860029764
3.146275151	-0.681287048	-0.847963207
3.026674791	-0.537828399	-0.840802478
2.927836019	-0.40731579	-0.839761624
2.898895696	-0.292213281	-0.860499709
16.06175075	-2.842192764	-0.738694098
13.5980766	-1.900641557	-0.754900987
11.93881781	-1.230143862	-0.774663743
10.49332455	-2.259315398	-0.778635451
9.512875897	-1.68796602	-0.793468765
8.687156799	-1.219330072	-0.803128818
8.076299688	-0.835009556	-0.823445069
7.209651465	-1.557444101	-0.807277274
6.784737516	-1.207915878	-0.819678849
6.369314593	-0.895924607	-0.827269617
5.967727005	-0.61889886	-0.830930893
5.505064846	-1.192132447	-0.826637279
5.282218396	-0.943555081	-0.838827341
4.990502534	-0.704642153	-0.836807479
4.742014127	-0.492285002	-0.840381196
4.466581566	-0.970511825	-0.8436006
4.279458288	-0.767208451	-0.8447895
4.104268372	-0.582285513	-0.846926474
3.902656951	-0.404941853	-0.84229502
3.698522687	-0.808088463	-0.845318665
3.576119505	-0.643886483	-0.846841009
3.469847218	-0.492648831	-0.853174235
3.345948221	-0.348239973	-0.855102665
3.156448428	-0.693634653	-0.851274544
3.039248162	-0.549686603	-0.84475981
2.946571824	-0.419141203	-0.845500299
2.883676838	-0.299618913	-0.85625103
33.38639379	-4.755525917	-0.615727273
23.77002475	-2.51495228	-0.66682784
16.15225513	-2.909341642	-0.743263391
13.64555759	-1.949978511	-0.757865483
11.93498794	-1.266765854	-0.774663744
10.51752406	-2.298311526	-0.780950674
9.49588309	-1.715017561	-0.79248654
8.642960216	-1.240176898	-0.799390774
8.087550284	-0.861258284	-0.82485764
7.210665226	-1.580832997	-0.807930063
6.783931386	-1.229256609	-0.820033199
6.27916175	-0.902897432	-0.815916184
5.9687551	-0.637520318	-0.831342463
5.500415458	-1.208803784	-0.826492083
5.265689842	-0.957282198	-0.836665062
4.989293539	-0.720090421	-0.836971272
4.731667997	-0.505888707	-0.838818836
4.466463757	-0.984845732	-0.844145087
4.261632974	-0.777514987	-0.84173768
4.106341304	-0.595436869	-0.847727146
3.910145595	-0.417848148	-0.844184009
3.701743228	-0.820699074	-0.846626212
3.570295641	-0.654152775	-0.845933113
3.459665428	-0.502036051	-0.851045396
3.358355406	-0.359949549	-0.85855163
3.143923206	-0.701000317	-0.848472647
3.031855556	-0.557960784	-0.843176832
2.962406942	-0.430670216	-0.850419174
2.908491237	-0.311219541	-0.863898661
32.7018204	-4.760424426	-0.603368548
16.09019209	-2.94915703	-0.740820375
13.66519936	-1.995584652	-0.759292836
11.92707679	-1.302942389	-0.774406132
10.51918676	-2.332511211	-0.781601796
9.459209736	-1.738377801	-0.789867333
8.620394358	-1.263942522	-0.797658485
8.073002526	-0.884765825	-0.82364689
7.179582064	-1.59711935	-0.804992509
6.782080932	-1.250423779	-0.820269411
6.366641195	-0.935421657	-0.827652338
5.982525197	-0.657560755	-0.833537464
5.502475102	-1.226965176	-0.827363265
5.256899343	-0.972354425	-0.835738331
4.998771844	-0.737120914	-0.838936735
4.760440108	-0.523741539	-0.844200303
4.47109851	-1.000261641	-0.845597056
4.262123385	-0.791123333	-0.842309888
4.105464462	-0.608175721	-0.847927357
3.907873801	-0.429735472	-0.843974144
3.69159031	-0.830338629	-0.844882835
3.582632996	-0.667780003	-0.849337729
3.476370266	-0.51535499	-0.855539527
3.316775018	-0.365789017	-0.84820468
3.133269232	-0.708722359	-0.846180136
3.07943074	-0.576489294	-0.856895615
2.940138632	-0.436647906	-0.84440721
2.925635149	-0.322135515	-0.869280306
32.21236253	-4.79013965	-0.59460607
23.5544738	-2.638389162	-0.661222619
16.07223024	-2.996859084	-0.740413216
13.67185158	-2.03941466	-0.760006542
11.91905642	-1.339082361	-0.774148461
10.51587361	-2.365648095	-0.781891235
9.464608156	-1.76940476	-0.790767662
8.610566212	-1.289498633	-0.797111491
8.065306407	-0.908972202	-0.823142396
7.222162553	-1.629861298	-0.810323607
6.76747694	-1.26921155	-0.818970209
6.358837086	-0.954213891	-0.827014508
5.979495328	-0.675800568	-0.833400254
5.492894608	-1.242530971	-0.826492082
5.23253004	-0.984458831	-0.832340388
5.022825577	-0.756419927	-0.843359103
4.73728222	-0.535908475	-0.840381195
4.454582598	-1.010927127	-0.843056109
4.272215799	-0.806563044	-0.8447895
4.097766878	-0.619888978	-0.846726323
3.890020818	-0.439855131	-0.840405971
3.69663768	-0.843397055	-0.846626211
3.572912501	-0.677317112	-0.847521933
3.47381224	-0.525872475	-0.855303016
3.337786351	-0.378474528	-0.853870876
3.134850325	-0.719196707	-0.847199018
3.053011196	-0.58124378	-0.850036251
2.96921916	-0.450281387	-0.853151868
2.896044405	-0.327873067	-0.860782949
31.37903209	-4.764663563	-0.579490868
23.80247531	-2.740135453	-0.668417436
16.09927557	-3.053040515	-0.742087152
13.70007921	-2.086611585	-0.761927957
11.89903069	-1.373812005	-0.773117897
10.51051143	-2.39834302	-0.782035897
9.453260484	-1.797316562	-0.790276579
8.629211402	-1.31937105	-0.799208443
8.053585271	-0.932681814	-0.82223426
7.176430355	-1.642695011	-0.805754136
6.740141342	-1.285503098	-0.816135591
6.360781867	-0.97446903	-0.827652338
5.976409627	-0.694027903	-0.833263044
5.501593121	-1.262253425	-0.828379702
5.255686082	-1.005520107	-0.836510569
5.015605891	-0.771076659	-0.842540134
4.735615811	-0.550439728	-0.840381195
4.423668511	-1.018192	-0.837792662
4.27454142	-0.820591517	-0.845743233
4.099718984	-0.633055902	-0.847526993
3.872142505	-0.449869295	-0.836837797
3.687376988	-0.85319416	-0.845100751
3.579424416	-0.689934372	-0.849564703
3.454898387	-0.533856729	-0.851045397
3.352974955	-0.390619489	-0.858058937
3.140163999	-0.730563882	-0.849236782
3.052160758	-0.590790854	-0.850300064
2.948811532	-0.456445776	-0.847686479
2.909314084	-0.338418659	-0.865031626
30.94929229	-4.796596501	-0.571823684
23.7780745	-2.811269677	-0.667971236
16.06727269	-3.098068033	-0.741046634
13.69755892	-2.129246579	-0.76214754
11.87692258	-1.408196225	-0.771958527
10.50796206	-2.431702012	-0.782397637
9.444766634	-1.825742779	-0.790031008
8.632009823	-1.346913609	-0.79984663
8.033890905	-0.955388262	-0.820518957
7.212994466	-1.674369705	-0.810432386
6.72739214	-1.304474257	-0.815072602
6.31464568	-0.987238099	-0.82203937
5.950646464	-0.709545295	-0.829970603
5.480349051	-1.275090308	-0.825766039
5.255485626	-1.022205471	-0.836973934
4.995674151	-0.783708713	-0.839591909
4.740750004	-0.565782719	-0.841596356
4.408074647	-1.028853099	-0.835433213
4.256588042	-0.830693375	-0.842691355
4.090014744	-0.644410758	-0.845925595
3.863948218	-0.460936059	-0.8353686
3.691393025	-0.866063358	-0.846626211
3.579202358	-0.701287197	-0.850018653
3.454203931	-0.544605	-0.851281965
3.322891137	-0.397451331	-0.850668259
3.150143187	-0.74308054	-0.852548175
3.070208715	-0.604062344	-0.855840315
2.937895498	-0.46398986	-0.844953725
2.912071326	-0.347797649	-0.86616465
29.82243322	-4.715689955	-0.551268426
23.7207123	-2.878306365	-0.666604799
16.08514072	-3.152727212	-0.742313352
13.67912796	-2.169383167	-0.761488731
11.85768738	-1.442819505	-0.770992336
10.50822072	-2.46575131	-0.782976458
9.442054386	-1.855286848	-0.790276578
8.586531779	-1.366814951	-0.796017448
8.036847699	-0.980754496	-0.821124362
7.1865359	-1.691480559	-0.808038842
6.736997964	-1.32779563	-0.816726095
6.348805964	-1.012542417	-0.826886954
5.973021877	-0.7308057	-0.833400253
5.479299921	-1.292579289	-0.826201688
5.242632712	-1.036408212	-0.8354294
5.001039044	-0.800278586	-0.840902257
4.736059394	-0.579965371	-0.841075589
4.407768105	-1.04305145	-0.835977701
4.259797102	-0.844894394	-0.843835825
4.088986014	-0.657111225	-0.846125807
3.869309396	-0.473619853	-0.836837798
3.700112493	-0.88009439	-0.849241305
3.584675084	-0.713786247	-0.851834448
3.454435654	-0.555508338	-0.851755049
3.345705177	-0.410595319	-0.856827147
3.145967599	-0.752291721	-0.852038734
3.011589985	-0.602132109	-0.84001099
2.905118298	-0.467952813	-0.835935782
2.910038652	-0.356613446	-0.865881408
23.63142248	-2.94106695	-0.664345962
16.05971714	-3.198938304	-0.741589513
13.67832229	-2.212296596	-0.761818165
11.85716562	-1.479685877	-0.771250006
10.51807186	-2.50213314	-0.78427876
9.462706632	-1.889515161	-0.792486541
8.575417915	-1.392034682	-0.795379203
8.057493685	-1.008371689	-0.82354598
7.187113937	-1.714904938	-0.808691632
6.740681892	-1.350018282	-0.817671006
6.358396211	-1.034085307	-0.828545275
5.985494294	-0.750976941	-0.835458044
5.494554257	-1.313985813	-0.829105688
5.232647911	-1.05112549	-0.83434829
4.988824325	-0.814029142	-0.839264323
4.734257414	-0.594492646	-0.841075587
4.408372719	-1.057486992	-0.836703687
4.256222607	-0.857765364	-0.84364509
4.102420644	-0.672187694	-0.849328544
3.874629031	-0.486340887	-0.838307053
3.668931568	-0.884579461	-0.84270363
3.595832342	-0.727484216	-0.855012091
3.452714893	-0.566103795	-0.851755047
3.340583402	-0.420373866	-0.855841705
3.159621565	-0.765812218	-0.856368954
3.046593843	-0.618857147	-0.850300062
2.95018086	-0.48450192	-0.849326084
2.896560607	-0.363985186	-0.862199213
29.33614861	-4.823482213	-0.542816309
23.74623371	-3.029365673	-0.667831761
16.06549345	-3.251364287	-0.742313352
13.63009275	-2.24742803	-0.759512419
11.85949961	-1.516942478	-0.771700856
10.51422388	-2.535325492	-0.784568199
9.459795919	-1.919131901	-0.792732112
8.591738835	-1.421751329	-0.797293823
8.057322355	-1.033466649	-0.823848652
7.192447405	-1.739517091	-0.809888434
6.735535217	-1.370494079	-0.81755287
6.361064642	-1.054561023	-0.829310717
5.975302598	-0.768326017	-0.834360544
5.475111944	-1.32710761	-0.826782476
5.230366352	-1.067371547	-0.834502726
4.98046478	-0.828359696	-0.83828162
4.733388076	-0.609140079	-0.841249157
4.395551903	-1.068683464	-0.834888724
4.249724074	-0.870031681	-0.842882091
4.077146045	-0.680897239	-0.84452441
3.88572501	-0.499847444	-0.841035633
3.679473565	-0.899074679	-0.845754553
3.587859764	-0.737336348	-0.853650245
3.455753604	-0.577494604	-0.852937665
3.335432944	-0.430124809	-0.854856318
3.16101356	-0.776424866	-0.857387835
3.046570339	-0.62859089	-0.850827685
2.920218488	-0.488786668	-0.841127944
2.904942121	-0.374094915	-0.865031627
29.15949476	-4.886361819	-0.539822427
23.95587972	-3.130831958	-0.673994762
16.10534592	-3.310896377	-0.744620647
13.63790441	-2.291715922	-0.760335917
11.86567353	-1.554745832	-0.772409376
10.51511608	-2.56970192	-0.785219321
9.409937198	-1.939093324	-0.789048783
8.573588676	-1.445785381	-0.796017449
8.047209409	-1.05727409	-0.823142397
7.189973075	-1.762284927	-0.810214828
6.696290813	-1.383916782	-0.813300973
6.348997801	-1.072584595	-0.828162613
5.99943312	-0.790146631	-0.838064556
5.474857961	-1.344842782	-0.827363264
5.229002163	-1.083814101	-0.834811599
4.970118674	-0.842316935	-0.836971271
4.730520739	-0.623530319	-0.841075588
4.371245906	-1.076988245	-0.830895807
4.249918354	-0.883665072	-0.843454355
4.102082333	-0.698004412	-0.850129212
3.903560542	-0.514320669	-0.845233471
3.689960873	-0.913642881	-0.848805418
3.582720708	-0.747743377	-0.852969321
3.456839113	-0.588583263	-0.853647258
3.322567664	-0.438832906	-0.851900047
3.158616503	-0.786119091	-0.857387833
3.042739433	-0.637539079	-0.850300064
2.927239278	-0.499198876	-0.843587407
2.871453193	-0.378741426	-0.855401304
29.13253864	-4.973779697	-0.53960338
23.92931917	-3.202058846	-0.673520667
16.12347126	-3.36621208	-0.745932606
13.64852412	-2.336578396	-0.761324043
11.87172774	-1.592601463	-0.773117897
10.49846967	-2.59979192	-0.784568199
9.45759687	-1.979181374	-0.793550661
8.592667535	-1.476128459	-0.798205535
8.043927118	-1.081957659	-0.823142395
7.189356436	-1.785533154	-0.810758781
6.72311214	-1.410980886	-0.817080444
6.337857406	-1.09071223	-0.827142062
5.957714294	-0.803254722	-0.832577115
5.491828693	-1.366890325	-0.830557715
5.223718785	-1.099444406	-0.834502726
4.950013085	-0.85454033	-0.834023047
4.730537261	-0.638303817	-0.841422784
4.384141229	-1.094443032	-0.833981243
4.245266464	-0.896293929	-0.843072828
4.071925743	-0.705734037	-0.844324255
3.93200135	-0.530345639	-0.851740148
3.680513911	-0.923296893	-0.847280013
3.572787685	-0.757116308	-0.851153524
3.450230538	-0.598355842	-0.852464642
3.31544319	-0.448245232	-0.850421912
3.164629077	-0.797933671	-0.859680291
3.049260325	-0.648677423	-0.852674475
2.974029148	-0.51657272	-0.857524226
2.885484574	-0.389602376	-0.859933225
29.09054639	-5.058508929	-0.539110509
23.90551804	-3.273559384	-0.673130257
19.05334521	-4.76976507	-0.706483414
16.15020393	-3.423534365	-0.747651782
13.64325891	-2.378783458	-0.761433835
11.87172941	-1.629694462	-0.773439941
10.50108598	-2.634658497	-0.785364041
9.445631338	-2.006944666	-0.79305952
8.595946349	-1.503856327	-0.798934918
7.997203493	-1.100662359	-0.818702745
7.187700699	-1.808551644	-0.811193955
6.684759784	-1.424357666	-0.812946624
6.328620017	-1.109124179	-0.82637668
5.978771989	-0.824777742	-0.835869614
5.489528452	-1.384216446	-0.830848169
5.226118143	-1.116704112	-0.8354294
4.959027405	-0.871772304	-0.835988511
4.73343478	-0.653487344	-0.842290749
4.413177884	-1.11608586	-0.840152172
4.236737339	-0.908079605	-0.841928416
4.075530586	-0.719244838	-0.845525289
3.914859323	-0.540267757	-0.848381847
3.691852662	-0.938189893	-0.850548794
3.567591714	-0.767459413	-0.850472601
3.424458037	-0.604714086	-0.846551324
3.317892341	-0.458945945	-0.851407296
3.162166005	-0.807638872	-0.859680289
3.047255748	-0.658029341	-0.852674473
2.912754274	-0.515140339	-0.840308139
2.889025689	-0.399109288	-0.861349431
28.72932258	-5.086551045	-0.53270295
23.89140192	-3.346330409	-0.673018736
18.88653787	-4.789629036	-0.700839868
16.15329831	-3.476008701	-0.748285142
13.66932234	-2.426562986	-0.763300413
11.87062622	-1.666663792	-0.773697611
10.47748715	-2.662931952	-0.7842064
9.438455583	-2.035703885	-0.792977683
8.586390092	-1.529348186	-0.798479061
8.007581555	-1.127133615	-0.820115374
7.179228507	-1.829858154	-0.810867618
6.689093353	-1.44674875	-0.814009613
6.319328695	-1.127489638	-0.825611237
5.969347347	-0.842147822	-0.834909265
5.479503852	-1.399582507	-0.829976928
5.222667595	-1.132732322	-0.8354294
4.969924222	-0.88941525	-0.838281619
4.737258264	-0.66883229	-0.843332339
4.42306992	-1.133036471	-0.842693119
4.241605353	-0.922742811	-0.843454356
4.058839742	-0.729146516	-0.842522704
3.921896691	-0.553505514	-0.850270897
3.680450478	-0.947322384	-0.848587503
3.545239295	-0.774038475	-0.845706138
3.41015482	-0.612982716	-0.843476381
3.324145861	-0.47020886	-0.853378183
3.146566675	-0.813946054	-0.856114262
3.048049152	-0.667994579	-0.853465962
2.951869026	-0.531402665	-0.852058778
2.896334205	-0.409178248	-0.863898661
24.19470053	-3.464528953	-0.68185882
18.46618995	-4.743373201	-0.685778489
13.67655209	-2.471151529	-0.764123852
11.87434716	-1.704350483	-0.774277267
10.46926769	-2.695063841	-0.7842064
9.4234029	-2.062733192	-0.792241028
8.559120718	-1.551598158	-0.79638211
7.990299685	-1.149711572	-0.818702745
7.171655559	-1.851378157	-0.810650002
6.687533154	-1.4679025	-0.814363904
6.312912647	-1.146340053	-0.825228575
5.963794577	-0.860033439	-0.834497754
5.45890054	-1.412174205	-0.827508462
5.206624188	-1.14598909	-0.833421558
4.971054399	-0.905365613	-0.838936736
4.73031042	-0.682659481	-0.842464375
4.403390815	-1.142402734	-0.839607683
4.252174357	-0.938714153	-0.846124704
4.046945809	-0.739833494	-0.840521001
3.907599826	-0.563720312	-0.847542315
3.688859591	-0.961563513	-0.851202595
3.544749535	-0.785332795	-0.846160086
3.423550279	-0.626239307	-0.847260916
3.325565131	-0.480821052	-0.854117221
3.157150843	-0.827026391	-0.859680289
3.069524789	-0.682577205	-0.860061515
2.903861482	-0.531962987	-0.838668534
2.888420797	-0.417102645	-0.86191597
28.40549211	-5.209171499	-0.527281193
24.0464758	-3.518623853	-0.677982551
18.32678822	-4.767548001	-0.681141427
13.65221184	-2.510029719	-0.763190621
11.85721454	-1.739034731	-0.773504373
10.49376444	-2.735725266	-0.786666343
9.405355146	-2.089040874	-0.791258804
8.552361495	-1.577488557	-0.796199779
7.942440591	-1.167707802	-0.814162242
7.154401314	-1.870354705	-0.809344422
6.716922011	-1.495968066	-0.818497783
6.295711445	-1.163179653	-0.823442641
5.966027558	-0.879047988	-0.835183683
5.449756979	-1.427661604	-0.826782477
5.197298394	-1.160665347	-0.832494826
4.967283583	-0.920432587	-0.838772943
4.740859584	-0.699036221	-0.844721127
4.403669642	-1.156906312	-0.840333667
4.241610815	-0.950038777	-0.844598764
4.068738444	-0.756724554	-0.84552529
3.919393517	-0.577701966	-0.850480763
3.684004902	-0.972378083	-0.850766708
3.537572522	-0.795136402	-0.845025214
3.419702509	-0.636384128	-0.846787835
3.338456073	-0.493145912	-0.85781259
3.131231346	-0.830510613	-0.853312307
3.047656782	-0.687533558	-0.854521205
2.910726595	-0.542455533	-0.841127941
2.893769093	-0.426942123	-0.863898662
27.97558503	-5.219097416	-0.51959577
24.26394079	-3.626513819	-0.684424383
18.10720101	-4.769783872	-0.673520913
13.64346555	-2.551718645	-0.763135667
11.84688874	-1.774664751	-0.773182329
10.47664324	-2.765615539	-0.786015163
9.396957089	-2.117448134	-0.79109507
8.559226891	-1.605923135	-0.797293823
7.914223811	-1.188376071	-0.811639773
7.141902493	-1.89051464	-0.808582853
6.705520724	-1.51503626	-0.817671007
6.290163613	-1.182122835	-0.823187474
5.980933869	-0.900000489	-0.837652985
5.434831689	-1.441584257	-0.825185251
5.229365335	-1.184681834	-0.838209539
4.961528111	-0.935119536	-0.838281621
4.749405023	-0.715190778	-0.846630682
4.402000501	-1.170916719	-0.840696661
4.255906623	-0.966962192	-0.848032111
4.06928553	-0.769750023	-0.846125805
3.926304331	-0.591033653	-0.852369814
3.694204818	-0.987203385	-0.853817631
3.524671467	-0.803604392	-0.842528494
3.415824617	-0.646511257	-0.846314754
3.327343909	-0.501940113	-0.85534901
3.136140215	-0.842119473	-0.855350072
3.051174768	-0.698171311	-0.856104184
2.909993927	-0.551562105	-0.84140123
2.852615185	-0.429816639	-0.852002349
27.76297975	-5.267624992	-0.515944747
24.04716112	-3.669572261	-0.678623957
18.01426693	-4.804453613	-0.670609285
13.66401943	-2.598974903	-0.764727707
11.85519817	-1.813114277	-0.774084087
10.48256227	-2.801607298	-0.787100444
9.419564357	-2.152929585	-0.793550662
8.555237042	-1.632361573	-0.797385017
7.914474643	-1.213253951	-0.812043357
7.136068829	-1.91241682	-0.808582853
6.70180885	-1.53582328	-0.817789084
6.284558983	-1.201042796	-0.822932366
5.93604523	-0.911878272	-0.831754033
5.399805724	-1.450040094	-0.820538771
5.209336792	-1.196958541	-0.835583894
4.965417562	-0.951636722	-0.839428116
4.756922346	-0.731254705	-0.848366667
4.365152609	-1.175466677	-0.834344236
4.209874344	-0.970095366	-0.839448803
4.066904764	-0.782230787	-0.846125805
3.929304539	-0.603819149	-0.853419273
3.685506149	-0.997003295	-0.852510085
3.559195353	-0.822970743	-0.8513805
3.410008775	-0.656253358	-0.845368649
3.313335835	-0.510228296	-0.852146393
3.122343842	-0.848693288	-0.852293425
3.048078919	-0.707310846	-0.855840317
2.892230448	-0.557392639	-0.836755641
2.855074857	-0.439149521	-0.853135317
27.72410862	-5.348419924	-0.515524892
24.36864616	-3.795169521	-0.688021762
17.79876418	-4.805516239	-0.663132479
13.66970596	-2.643537296	-0.765496308
11.83873444	-1.847784249	-0.773375567
10.47006626	-2.832712315	-0.786811062
9.411944381	-2.181593292	-0.793468766
8.54530146	-1.657652771	-0.796929162
7.91956104	-1.238913457	-0.812951491
7.135924234	-1.935862528	-0.809235643
6.707705181	-1.558849487	-0.819088287
6.274029047	-1.218993725	-0.822039369
5.945941318	-0.932079757	-0.833537463
5.401060309	-1.468156777	-0.821410012
5.205639851	-1.212934865	-0.835583893
4.958601479	-0.966111284	-0.838772942
4.759521038	-0.746608414	-0.84923463
4.375757555	-1.192732455	-0.837066679
4.216437125	-0.985240139	-0.841356211
4.061601391	-0.794140203	-0.84552529
3.922603904	-0.615113847	-0.852369814
3.657014345	-1.001346402	-0.846626211
3.557601834	-0.834108681	-0.851607473
3.399397299	-0.665033102	-0.84323981
3.306967807	-0.519638862	-0.850914605
3.113198903	-0.856472966	-0.850510412
3.009276208	-0.708043095	-0.845551243
2.899946903	-0.568112564	-0.839488338
2.848029405	-0.447014455	-0.851435868
27.68892769	-5.429795435	-0.515177993
24.40131232	-3.876972125	-0.689276678
17.42725502	-4.762623426	-0.649832477
13.67622739	-2.688351725	-0.766319747
11.83596591	-1.884566947	-0.773568805
10.47864209	-2.869562401	-0.788113365
9.420729929	-2.214106823	-0.794778398
8.544083841	-1.684632119	-0.797293823
7.871511998	-1.256149258	-0.808410988
7.141454878	-1.960904698	-0.810541223
6.699025012	-1.578510135	-0.81861586
6.260529313	-1.236314902	-0.82076371
5.924469578	-0.947345598	-0.830930894
5.402254254	-1.486294805	-0.822281194
5.196124947	-1.227536903	-0.834657161
4.94400192	-0.979020001	-0.836807479
4.748455904	-0.75980644	-0.847672272
4.353117802	-1.200921043	-0.833436754
4.210529102	-0.997492495	-0.840783949
4.05626266	-0.806024431	-0.844924771
3.890769117	-0.622357964	-0.845863132
3.653925223	-1.012561219	-0.846626212
3.522811058	-0.837361897	-0.843890341
3.399247069	-0.675838119	-0.843712893
3.314927703	-0.53131587	-0.853378184
3.115214461	-0.867316921	-0.851783985
3.034299	-0.723762231	-0.853202095
2.918002044	-0.580951214	-0.845227013
2.857061378	-0.457417715	-0.85455158
27.30247174	-5.441048022	-0.508295861
24.45146836	-3.961888699	-0.691033584
17.08796616	-4.726288452	-0.637718667
13.68456122	-2.733622282	-0.767253036
11.8399794	-1.922469719	-0.774212894
10.48324531	-2.90542628	-0.789126286
9.389655166	-2.237223649	-0.792732111
8.540827693	-1.711228359	-0.797476154
7.873513172	-1.281251546	-0.809016393
7.141151819	-1.98440193	-0.811193955
6.707672086	-1.602284898	-0.820269411
6.268376092	-1.257857788	-0.822294536
5.917624769	-0.964879498	-0.830382173
5.411013137	-1.506577064	-0.824314011
5.195217358	-1.244162959	-0.835120529
4.930336897	-0.992042833	-0.835005809
4.731523231	-0.771992181	-0.845068325
4.358884575	-1.216914874	-0.835251715
4.209357899	-1.01086395	-0.841165476
4.039365321	-0.815556517	-0.84192219
3.891736367	-0.634763944	-0.846492854
3.656439791	-1.025347697	-0.847933759
3.499395854	-0.84314702	-0.838896903
3.396205215	-0.686071316	-0.843476381
3.329542259	-0.54414084	-0.857566243
3.09299251	-0.871363513	-0.846434884
3.018938347	-0.729894455	-0.849508573
2.921863074	-0.5910451	-0.846866619
2.844286302	-0.464326688	-0.851152625
24.52105787	-4.050407528	-0.693348152
16.96752593	-4.74906211	-0.633764556
13.71622999	-2.783735634	-0.769503827
11.84485545	-1.960577873	-0.774921414
10.47428197	-2.93757478	-0.789126286
9.420530549	-2.275145162	-0.795924357
8.562860551	-1.742984852	-0.800028961
7.874452386	-1.306215177	-0.809520886
7.129288243	-2.004686844	-0.810541223
6.695969113	-1.621220566	-0.819442636
6.250881778	-1.274309284	-0.820508602
5.923430876	-0.984491677	-0.831616824
5.413031842	-1.525048907	-0.825330448
5.195216163	-1.261027995	-0.83573833
4.916638431	-1.004991074	-0.83320408
4.714560458	-0.78408117	-0.842464377
4.346613458	-1.227875946	-0.83361825
4.208144649	-1.024237637	-0.841546947
4.045481977	-0.829716876	-0.843723738
3.891699806	-0.647021372	-0.846912593
3.664543739	-1.039757465	-0.850548794
3.558289326	-0.868895848	-0.853650245
3.405505964	-0.698831249	-0.846314755
3.307781211	-0.551008848	-0.852392741
3.107974231	-0.885885038	-0.851274545
3.056969759	-0.749023672	-0.860852946
2.915324665	-0.59903837	-0.845500299
2.834334007	-0.471633858	-0.848603394
26.6535512	-5.481975678	-0.496831623
16.82402912	-4.764605865	-0.628947785
13.72913945	-2.830238419	-0.770711596
11.84075214	-1.99724013	-0.775050219
10.4786533	-2.973507366	-0.790139148
9.384464131	-2.296927975	-0.793468766
8.558448445	-1.769448734	-0.800120156
7.875312876	-1.331196564	-0.81002538
7.131709674	-2.02899784	-0.81152035
6.690963728	-1.641755877	-0.819442636
6.250827726	-1.294285125	-0.821018877
5.921359105	-1.002825211	-0.831754032
5.412133172	-1.54273363	-0.825911235
5.187485362	-1.276016769	-0.835120528
4.921259029	-1.021674542	-0.834514427
4.717958574	-0.79952881	-0.843505967
4.335262066	-1.239043509	-0.832166283
4.219278539	-1.040669367	-0.84440803
4.063060292	-0.846319994	-0.847927357
3.903192146	-0.661244194	-0.8498511
3.664150821	-1.051803092	-0.851202596
3.495101901	-0.864836956	-0.839123878
3.413808847	-0.711456452	-0.848916616
3.323274417	-0.564073696	-0.856827148
3.108958282	-0.896487749	-0.852293426
3.029381356	-0.752123378	-0.853729772
2.946431018	-0.614857286	-0.85506476
2.832873849	-0.480327269	-0.848603396
26.302866	-5.494011595	-0.490606604
24.44254009	-4.191665923	-0.6918423
16.70749786	-4.78702123	-0.625137557
13.73407377	-2.875209886	-0.771480197
11.85817369	-2.03761349	-0.776596066
10.48098513	-3.008944183	-0.791007349
9.406392969	-2.33290561	-0.795924357
8.579292919	-1.801222001	-0.802581768
7.870211426	-1.355182667	-0.80992447
7.103479932	-2.044544235	-0.809018027
6.652167207	-1.65389001	-0.815308815
6.245856947	-1.313252261	-0.820891323
5.919231016	-1.021155402	-0.831891243
5.407374893	-1.559330481	-0.825911236
5.180670013	-1.291208889	-0.834657161
4.921962819	-1.037581884	-0.835169544
4.722276449	-0.815172185	-0.844721127
4.314435348	-1.247421592	-0.828899291
4.2027329	-1.050277056	-0.841737681
4.034563663	-0.853307494	-0.842522706
3.889583232	-0.671220711	-0.847332386
3.683400627	-1.069571266	-0.856432724
3.576507381	-0.896633507	-0.859324606
3.417313467	-0.723133387	-0.850335802
3.316753162	-0.57344114	-0.855595359
3.113619819	-0.908187866	-0.854331188
3.04296201	-0.765413842	-0.858214726
2.948294992	-0.62469146	-0.856157849
2.842727511	-0.490974776	-0.85200235
26.22524585	-5.561821534	-0.489474801
16.59674912	-4.810436435	-0.621542921
13.73202571	-2.918785225	-0.771864469
11.86366235	-2.076048505	-0.77736896
9.396292113	-2.361024357	-0.795678787
8.55424796	-1.823382288	-0.800758343
7.886595735	-1.382930301	-0.812043356
7.099082431	-2.066883562	-0.809235643
6.639358243	-1.672350438	-0.814363903
6.259258165	-1.336135115	-0.823187474
5.916070045	-1.039310473	-0.831891242
5.424411323	-1.582285146	-0.829250943
5.168062923	-1.304920051	-0.833267121
4.923579685	-1.053709573	-0.835988512
4.721693332	-0.829997127	-0.845068324
4.316251146	-1.262308416	-0.829988268
4.235652354	-1.072320757	-0.848985785
4.054917017	-0.870617495	-0.84732684
3.887506076	-0.68315065	-0.847332389
3.692275303	-1.084442201	-0.859265675
3.559580835	-0.904005963	-0.85591999
3.42077866	-0.734838561	-0.851755048
3.311160228	-0.582941914	-0.854609973
3.113601556	-0.918556917	-0.85509538
3.010688941	-0.767124706	-0.849772443
2.937900812	-0.631913265	-0.853698442
2.831762366	-0.498032643	-0.849169879
26.20023938	-5.64056946	-0.489328769
16.48121812	-4.831811168	-0.617768576
13.71910141	-2.960058211	-0.771644885
11.81302676	-2.10455959	-0.774470505
9.390936198	-2.390332437	-0.795842462
8.548613557	-1.849617795	-0.800758343
7.850974706	-1.401524573	-0.808814572
7.098429448	-2.090338367	-0.809888433
6.629385435	-1.691484385	-0.813773399
6.260945818	-1.356592116	-0.823952916
5.906028261	-1.056235189	-0.830930894
5.407195019	-1.595279911	-0.827363265
5.169778511	-1.322238233	-0.834193796
4.927071883	-1.070275883	-0.837135066
4.715246963	-0.843785249	-0.84437393
4.340648422	-1.283912476	-0.835433213
4.223784791	-1.083115972	-0.84726917
4.042653679	-0.880967628	-0.845325077
3.877692167	-0.693696688	-0.845653265
3.673961807	-1.091318397	-0.855778922
3.460584557	-0.890175057	-0.832768649
3.434646681	-0.748848576	-0.855776098
3.290276473	-0.589678281	-0.849682814
3.100575532	-0.925063851	-0.852293426
3.038208278	-0.784070675	-0.858214726
2.964142404	-0.64707845	-0.861896526
2.8179485	-0.504520804	-0.845487681
25.91126488	-5.661591299	-0.484253822
16.44236388	-4.87525003	-0.616869917
13.73726638	-3.008114264	-0.773182029
11.80258707	-2.140079238	-0.774212894
9.391278898	-2.421122635	-0.796497278
8.539007521	-1.874981581	-0.80039368
7.868173358	-1.429517075	-0.811034369
7.106273619	-2.116362288	-0.811520349
6.626087797	-1.712311929	-0.814009613
6.252879705	-1.37494203	-0.823442641
5.910556182	-1.075768687	-0.832028393
5.382364967	-1.605920924	-0.82431401
5.157089725	-1.33586294	-0.832803756
4.92280158	-1.085174514	-0.836971272
4.6990721	-0.855777193	-0.841943553
4.346110396	-1.300041528	-0.837248174
4.215691306	-1.09483552	-0.846315437
4.025582311	-0.890192906	-0.842322552
3.884202708	-0.707166215	-0.847542313
3.680878133	-1.105673225	-0.8581761
3.502132354	-0.912326868	-0.843436393
3.433281573	-0.759592251	-0.856012608
3.277010584	-0.597683161	-0.846726544
3.105129417	-0.936806433	-0.854331191
2.999392542	-0.783876235	-0.847925652
2.93584636	-0.650344091	-0.854244957
2.839031862	-0.51728969	-0.852285592
25.93477077	-5.750149314	-0.485020546
16.4235	-4.924523396	-0.61672615
13.73284685	-3.051328337	-0.773456509
11.88134401	-2.192030941	-0.779816565
9.4030928	-2.454958506	-0.798134319
8.550711755	-1.90506815	-0.802034717
7.892121592	-1.458894086	-0.813960479
7.106410108	-2.1401605	-0.812281977
6.636173952	-1.736654828	-0.815899378
6.243791668	-1.393039281	-0.822804811
5.908201859	-1.094077322	-0.832165602
5.406776841	-1.63128564	-0.828815293
5.144366049	-1.349422196	-0.831413657
4.92233732	-1.100918282	-0.837462653
4.719664182	-0.874495768	-0.846109915
4.33268904	-1.31052201	-0.835433214
4.212312698	-1.107763961	-0.846315438
4.031436241	-0.904469376	-0.844124102
3.86471029	-0.715874002	-0.843764273
3.627041241	-1.101644467	-0.846408296
3.48424993	-0.919092503	-0.839804802
3.379741327	-0.758630647	-0.843239811
3.29707839	-0.611800977	-0.852392739
3.090216304	-0.942660467	-0.851019851
3.014690557	-0.797762906	-0.852938283
2.932898872	-0.659137111	-0.853971671
2.844032363	-0.527220921	-0.854268339
25.67606864	-5.775492858	-0.480511544
16.33276286	-4.951979489	-0.613886406
11.88927486	-2.231232993	-0.780782756
9.392626418	-2.483031201	-0.797888748
8.552597379	-1.933048713	-0.802764099
7.851431639	-1.476297496	-0.810227143
7.101712812	-2.162531704	-0.812499535
6.632734071	-1.757514785	-0.81613559
6.236586596	-1.411531542	-0.822422091
5.90189736	-1.11164819	-0.831754033
5.379980604	-1.641225789	-0.825475644
5.143066357	-1.365959411	-0.831877023
4.917012587	-1.115578028	-0.837135066
4.709216962	-0.88751228	-0.844721128
4.338991955	-1.326971934	-0.83742967
4.193716696	-1.116640711	-0.843263619
4.005714409	-0.911615468	-0.839319968
3.850005245	-0.725374063	-0.841035634
3.636706071	-1.116777931	-0.84945922
3.484236402	-0.930531608	-0.840485724
3.422872095	-0.779349935	-0.854593423
3.284709977	-0.619936172	-0.849682816
3.067904458	-0.946151996	-0.845670695
3.022477795	-0.809753843	-0.855840316
2.934614271	-0.668987273	-0.855064759
2.840516454	-0.535588429	-0.853701797
25.40088649	-5.795522838	-0.475692181
16.31080416	-5.000014365	-0.613634815
11.88629515	-2.268446655	-0.781040368
9.396518008	-2.514927778	-0.798870973
8.538861281	-1.95749837	-0.802034717
7.845888349	-1.500191632	-0.810126292
7.095044662	-2.184309411	-0.812499534
6.624433713	-1.777083589	-0.815781241
6.233193296	-1.43088039	-0.822549645
5.898459073	-1.129749678	-0.831754033
5.411792804	-1.6690959	-0.831138562
5.135989222	-1.380962049	-0.831413657
4.907798699	-1.129330659	-0.836152305
4.717111219	-0.903994702	-0.846630681
4.326444915	-1.337663151	-0.835796204
4.1912191	-1.129757023	-0.843454354
4.015309441	-0.92676504	-0.841922189
3.866006532	-0.740677787	-0.8450236
3.636058946	-1.128797935	-0.850112964
3.487946154	-0.942995971	-0.842074545
3.433718749	-0.792908087	-0.857904877
3.293262472	-0.632019947	-0.85239274
3.074219167	-0.958437879	-0.848217899
3.034874266	-0.82306245	-0.860061514
2.955041368	-0.683187688	-0.861623297
2.83132489	-0.54285577	-0.851435867
25.45117187	-5.889202535	-0.476970044
16.21520407	-5.025182457	-0.610615303
11.88221818	-2.305472707	-0.781233606
9.385872193	-2.542962098	-0.798625403
8.532815077	-1.983686051	-0.802034716
7.889102561	-1.533557688	-0.815070377
7.083564181	-2.204589313	-0.811955582
6.618950432	-1.797398766	-0.815781241
6.226842109	-1.449547079	-0.822294537
5.914410837	-1.151627023	-0.834497753
5.454819164	-1.700710432	-0.838543844
5.111708674	-1.391263674	-0.82817021
4.896625413	-1.142588884	-0.834842015
4.705615782	-0.916767414	-0.845068324
4.323259514	-1.35122355	-0.835977702
4.176368948	-1.139509486	-0.841165475
4.002907415	-0.936846742	-0.839920485
3.864675667	-0.752721991	-0.845233469
3.626991479	-1.138194664	-0.848805417
3.497248386	-0.957034139	-0.845025213
3.393428576	-0.794578224	-0.848443534
3.283697928	-0.640635886	-0.850421911
3.102622517	-0.977747139	-0.856878395
3.037916028	-0.833901402	-0.861644437
2.919215641	-0.684346494	-0.851785548
2.850355309	-0.555576118	-0.857667234
24.90150784	-5.842559391	-0.467002747
23.9350927	-4.712054068	-0.680548114
16.10434654	-5.045030899	-0.607020726
11.87313105	-2.341529856	-0.7811048
9.413589286	-2.581497932	-0.801653915
8.532504685	-2.011225886	-0.802581767
7.857031764	-1.552354372	-0.812245176
7.078663962	-2.226907634	-0.81217314
6.615320063	-1.818223335	-0.816017455
6.232018395	-1.470922281	-0.823570194
5.888501007	-1.165343809	-0.831342463
5.465617911	-1.722493235	-0.84101231
5.111226031	-1.407989252	-0.828788011
4.896936677	-1.158514612	-0.83549713
4.715340009	-0.933686492	-0.847325076
4.319093632	-1.364480851	-0.835977702
4.183261998	-1.15519131	-0.84326362
3.999061193	-0.948896905	-0.839720275
3.877694187	-0.767612883	-0.848591774
3.638367096	-1.154037934	-0.852292169
3.497111524	-0.968538875	-0.845706137
3.394756417	-0.805883051	-0.849389698
3.314039798	-0.657116144	-0.858797974
3.082101529	-0.981685133	-0.852038735
3.032555088	-0.84244313	-0.860852946
2.902128551	-0.689740463	-0.847413192
2.847696688	-0.56413191	-0.857383994
24.84358636	-5.909442439	-0.466254262
23.61862532	-4.725066828	-0.671959025
16.05163588	-5.082649095	-0.605618825
11.8727409	-2.37931772	-0.78155565
9.380655957	-2.603436627	-0.79952579
8.530169103	-2.03831949	-0.80294643
7.833699431	-1.572731329	-0.810328054
7.076535031	-2.250120441	-0.812717151
6.613537359	-1.839574704	-0.816489881
6.213007524	-1.486573017	-0.821656707
5.89266667	-1.184966253	-0.832439963
5.462192985	-1.739854029	-0.841302704
5.104027526	-1.422867702	-0.828324646
4.896237448	-1.174222986	-0.835988512
4.691213023	-0.943874985	-0.843505968
4.316760606	-1.378323414	-0.836340693
4.161734984	-1.163000201	-0.839639537
4.00660939	-0.963681688	-0.841922187
3.868611228	-0.778156238	-0.84712252
3.641315214	-1.167280355	-0.853817632
3.497874824	-0.980314642	-0.846614036
3.396991345	-0.817430786	-0.850572374
3.274954806	-0.659815122	-0.849190122
3.071711294	-0.988765782	-0.850000972
3.007670408	-0.845478174	-0.854521206
2.900933858	-0.698866112	-0.847686477
2.855354575	-0.574758393	-0.860216467
24.65135458	-5.943683926	-0.462986616
23.29544927	-4.73478921	-0.663174672
16.02454608	-5.128215642	-0.605187466
11.87125254	-2.416926092	-0.781942126
9.371665023	-2.631934356	-0.799443952
8.531618115	-2.066355407	-0.803675812
7.818114219	-1.594570305	-0.809218155
7.0714911	-2.272428639	-0.812934766
6.625068345	-1.864698711	-0.818615861
6.211309111	-1.506328457	-0.822039369
5.887062833	-1.202642645	-0.832165603
5.459654876	-1.757513036	-0.841738295
5.131017681	-1.447371483	-0.833421558
4.88015013	-1.186209852	-0.833859253
4.67671665	-0.955896415	-0.841422785
4.300345515	-1.387634661	-0.833981244
4.174205884	-1.180303418	-0.842882092
4.006489958	-0.976665426	-0.842522706
3.86716331	-0.790217042	-0.847332386
3.641430802	-1.179649391	-0.854689349
3.511715992	-0.995823821	-0.850699576
3.419010388	-0.833834295	-0.856722203
3.287157613	-0.672774414	-0.852885433
3.080617813	-1.002073623	-0.853312307
3.00042334	-0.853382209	-0.853202094
2.893169192	-0.706393782	-0.846046814
2.855456876	-0.583900089	-0.860782948
22.98614484	-4.745403083	-0.654780788
15.95738994	-5.160748269	-0.603246381
11.85400896	-2.451314425	-0.781298038
9.359711425	-2.659584172	-0.799116544
8.522336797	-2.091808153	-0.803402286
7.82292757	-1.620566629	-0.810227143
7.066377455	-2.294727018	-0.813152325
6.610720822	-1.882567658	-0.817552871
6.20665853	-1.525377433	-0.822039369
5.87558621	-1.21908836	-0.831068103
5.448592247	-1.772418378	-0.840867114
5.102800975	-1.456327766	-0.829560249
4.888940283	-1.204243582	-0.835988511
4.674726217	-0.970440114	-0.841596355
4.307287231	-1.404479759	-0.836159198
4.160183615	-1.190134139	-0.840783949
4.003474608	-0.988952533	-0.842522705
3.872379588	-0.803667091	-0.849011511
3.628519078	-1.187779293	-0.852510084
3.500219118	-1.00417581	-0.848656806
3.388138557	-0.837326508	-0.849626209
3.269895848	-0.679700205	-0.848943777
3.097739629	-1.018163035	-0.858916157
2.990375447	-0.860449591	-0.851091552
2.888187236	-0.714573494	-0.845227014
2.868676384	-0.595778034	-0.86531487
24.18059714	-5.98741003	-0.454826561
22.73667532	-4.766675505	-0.648087961
15.92248269	-5.203471819	-0.602527489
11.86694197	-2.491977268	-0.782650646
9.351508073	-2.688286754	-0.799116544
8.509114354	-2.116262022	-0.802764099
7.828628259	-1.646812148	-0.811337041
7.06402651	-2.31794517	-0.813696336
6.601097242	-1.901740546	-0.817080444
6.207724202	-1.545849984	-0.822804811
5.862125882	-1.235066467	-0.829696243
5.436549141	-1.786963422	-0.839850675
5.13248127	-1.481842248	-0.835120527
4.873736867	-1.216370463	-0.834023046
4.669799828	-0.984371125	-0.841249159
4.292683904	-1.414302789	-0.834162739
4.184801272	-1.211078524	-0.846506174
4.003272986	-1.001944022	-0.843123221
3.87372244	-0.816350068	-0.8498511
3.601692888	-1.191244129	-0.847062041
3.48309212	-1.010838027	-0.845252188
3.384611329	-0.847481244	-0.849389698
3.265898409	-0.689328568	-0.848451025
3.089094937	-1.025833366	-0.857387834
3.000687663	-0.873393832	-0.854785074
2.911174054	-0.729746105	-0.852605351
2.856512555	-0.602399302	-0.862199214
22.32401634	-4.751708592	-0.636738044
15.87323161	-5.241330162	-0.601269355
11.84362528	-2.525043433	-0.781620082
9.34608699	-2.71779915	-0.799362115
8.48906306	-2.138951455	-0.801487725
7.824512246	-1.671030086	-0.811437952
7.062543311	-2.341483242	-0.814349126
6.595232008	-1.921983486	-0.817080445
6.215454555	-1.568041753	-0.824463191
5.855403202	-1.252423871	-0.829284673
5.414139967	-1.798021199	-0.837237071
5.12222064	-1.495919701	-0.834193795
4.867113102	-1.230591715	-0.833531667
4.65423847	-0.99601408	-0.838992406
4.292057037	-1.428708187	-0.834888724
4.182950076	-1.224463161	-0.846887643
4.037219015	-1.023612137	-0.85092994
3.858770732	-0.825571494	-0.847122519
3.621162694	-1.210021117	-0.852510084
3.471564271	-1.01905047	-0.843209418
3.38576249	-0.858816662	-0.850335803
3.264715887	-0.699548072	-0.848697371
3.04192715	-1.020542024	-0.845161254
2.97393592	-0.875513117	-0.847925653
2.912650872	-0.739621031	-0.85369844
2.86590452	-0.613569457	-0.865598111
22.10414973	-4.775843098	-0.630881829
15.83337652	-5.282097179	-0.600370696
11.85630451	-2.56579984	-0.78297269
9.337705143	-2.746459599	-0.799362115
8.486320411	-2.165970438	-0.801852386
7.81448721	-1.693973613	-0.810933458
7.067580285	-2.367244055	-0.815763485
6.589304226	-1.942208339	-0.817080444
6.209653628	-1.586857616	-0.824335579
5.850565396	-1.270171979	-0.829147522
5.378581429	-1.80455232	-0.83259059
5.102447016	-1.507149282	-0.831722587
4.857581026	-1.244049535	-0.832548906
4.650198382	-1.010079418	-0.838818836
4.29324633	-1.443750003	-0.835977702
4.175408682	-1.236175801	-0.846124702
4.034059869	-1.035993241	-0.850929941
3.861952584	-0.838651002	-0.848381848
3.636852013	-1.227680118	-0.857086468
3.465620789	-1.028864758	-0.842528495
3.401932967	-0.874035601	-0.855066503
3.268236556	-0.710796583	-0.850175507
3.064425614	-1.038560586	-0.852293427
3.0128369	-0.897018897	-0.859797648
2.926205621	-0.752626849	-0.858344028
2.849951053	-0.619304252	-0.861349433
21.63633871	-4.744291904	-0.617942376
15.79436772	-5.322988617	-0.599507978
11.84837716	-2.602162257	-0.78297269
9.333056374	-2.776230997	-0.799689523
8.478670564	-2.191746651	-0.801761249
7.809253376	-1.71794025	-0.810933458
7.068759071	-2.391783418	-0.81674267
6.594734141	-1.965819013	-0.818497783
6.20763633	-1.606646576	-0.824718299
5.847608173	-1.288328436	-0.829284673
5.356152971	-1.815328572	-0.829976927
5.094959011	-1.521948019	-0.831259221
4.855651085	-1.259441869	-0.832876492
4.649962904	-1.024977253	-0.839339603
4.296245584	-1.459445167	-0.83742967
4.169715882	-1.248416814	-0.845743233
4.01284615	-1.043679025	-0.847126628
3.855542061	-0.849653755	-0.847542314
3.613669917	-1.232217361	-0.852510084
3.484834408	-1.046213106	-0.847975882
3.371026162	-0.877128439	-0.847970512
3.272665505	-0.722282136	-0.851900048
3.052075967	-1.044825307	-0.849746222
2.974049537	-0.895412831	-0.849508573
2.899679947	-0.755296542	-0.851238975
2.832116357	-0.624533945	-0.856534272
21.54947618	-4.794583911	-0.615878803
15.69565834	-5.343400352	-0.596380701
11.90072818	-2.651957714	-0.786966142
9.349309681	-2.812315643	-0.801817648
8.475759931	-2.218757273	-0.802125911
7.798120054	-1.740590168	-0.810328054
7.063269188	-2.414101882	-0.816960227
6.570607695	-1.980596919	-0.816253668
6.203637699	-1.625935325	-0.824845854
5.855228563	-1.308855672	-0.830930894
5.341197874	-1.828547873	-0.828524899
5.102560899	-1.541285815	-0.833267121
4.862259784	-1.277089517	-0.834678221
4.641029844	-1.037948609	-0.83829807
4.301979858	-1.47612986	-0.839426188
4.142377912	-1.25409253	-0.840974684
4.024784442	-1.059977676	-0.850329422
3.858641971	-0.862758407	-0.84880164
3.597876525	-1.239166532	-0.849677134
3.476016804	-1.055202176	-0.846614035
3.391808166	-0.893655252	-0.853883828
3.272325513	-0.732742719	-0.852392739
3.046114367	-1.053236004	-0.848982089
2.987898195	-0.909589275	-0.854257395
2.923392765	-0.771058204	-0.858890544
2.842353672	-0.635941952	-0.860216466
21.18071081	-4.780781683	-0.605755908
15.62815834	-5.373980614	-0.594439616
11.86917535	-2.683175187	-0.785420295
8.470838405	-2.245260419	-0.802308242
7.794683778	-1.76494568	-0.810529874
7.049251924	-2.433489683	-0.816198658
6.568299798	-2.001903847	-0.816726095
6.21491733	-1.649284939	-0.827014509
5.847321162	-1.325936872	-0.830382172
5.336498005	-1.845249134	-0.828670096
5.099698025	-1.557510263	-0.833575993
4.868805934	-1.294789613	-0.836479892
4.651269379	-1.055232663	-0.84072839
4.301147492	-1.490609272	-0.840152172
4.131940377	-1.264784024	-0.839639539
4.014886836	-1.07055356	-0.848928178
3.880768316	-0.880215515	-0.854258806
3.600510379	-1.252443421	-0.851202595
3.482073542	-1.06871898	-0.84888378
3.384356536	-0.902804793	-0.852701153
3.280458344	-0.745140041	-0.855102665
3.052911121	-1.066083163	-0.851783984
2.972187111	-0.914779346	-0.850563875
2.84945184	-0.760913708	-0.837848731
2.843195039	-0.64529598	-0.86106619
20.93695826	-4.793316909	-0.599202496
15.5946057	-5.416000187	-0.593792607
15.33233296	-4.706911269	-0.726343301
11.83365279	-2.713332009	-0.783616779
8.47545212	-2.274335269	-0.803402286
7.78632362	-1.788183081	-0.810227143
7.054894075	-2.459686701	-0.817721855
6.562127048	-2.022045789	-0.816726095
6.210785985	-1.668601584	-0.827142063
5.845156721	-1.344313951	-0.830656534
5.331745575	-1.861938807	-0.828815292
5.086399472	-1.570525175	-0.832185952
4.868620966	-1.310746631	-0.837135066
4.652808945	-1.070601692	-0.841596355
4.310476882	-1.508670904	-0.842874615
4.138356068	-1.280646865	-0.841737682
3.993611326	-1.078014741	-0.845124925
3.875190815	-0.891459797	-0.85362914
3.606779984	-1.267041848	-0.853599717
3.490870309	-1.083148731	-0.851834448
3.397517279	-0.917489874	-0.856722203
3.283823423	-0.756506266	-0.8565808
3.056009862	-1.077695641	-0.853567056
3.002523349	-0.934210021	-0.860061516
2.942750224	-0.795508033	-0.865995595
2.844005779	-0.654661156	-0.861915972
20.68846351	-4.80327181	-0.59250967
15.51190393	-5.440665253	-0.591276338
15.25008063	-4.732904986	-0.723131206
11.84179654	-2.753466486	-0.784711775
8.502070367	-2.309463456	-0.806593281
7.780800583	-1.812062737	-0.810227143
7.050127242	-2.482309571	-0.818048249
6.555892695	-2.042168597	-0.816726095
6.196066869	-1.685045409	-0.825866405
5.842934038	-1.362690266	-0.830930894
5.332540077	-1.880591014	-0.829831731
5.067410723	-1.581706941	-0.82986918
4.867432171	-1.32645534	-0.837626447
4.652379575	-1.085542592	-0.842117179
4.292847687	-1.517300203	-0.840333669
4.132533629	-1.292750967	-0.84135621
3.989340209	-1.090003616	-0.844924772
3.875294266	-0.904010865	-0.854258805
3.607474759	-1.279732898	-0.854689348
3.50146988	-1.098225365	-0.855239066
3.383439548	-0.924834759	-0.853883828
3.267330521	-0.763270305	-0.852885433
3.052689276	-1.087066251	-0.853567057
2.995962514	-0.942259711	-0.859006216
2.872564153	-0.785999568	-0.846046814
2.83731409	-0.662293389	-0.860499706
20.55784046	-4.839462612	-0.589191181
15.45557449	-5.47421617	-0.589766612
15.12492002	-4.744981678	-0.717883256
11.86146014	-2.796424394	-0.786579665
8.501665703	-2.337384377	-0.807231525
7.801348077	-1.842098443	-0.812951492
7.041542267	-2.503594426	-0.817939413
6.55149121	-2.06286856	-0.816962309
6.18321783	-1.701941046	-0.824845854
5.836797885	-1.380153876	-0.830656533
5.34352257	-1.902916758	-0.832445394
5.063476104	-1.597543405	-0.830023615
4.861437723	-1.340857526	-0.837298859
4.65381933	-1.100944432	-0.842985143
4.254830245	-1.518563423	-0.833799748
4.124804209	-1.304239531	-0.840593212
3.988810262	-1.103021033	-0.845525289
3.834443518	-0.906894431	-0.845863133
3.594343506	-1.287503214	-0.852510084
3.4655913	-1.098661719	-0.847294959
3.340318988	-0.924071035	-0.843712893
3.284778314	-0.777981387	-0.858058936
3.054799722	-1.098389845	-0.85509538
3.008684603	-0.956414397	-0.863491167
2.885899089	-0.799173055	-0.850692459
2.82966933	-0.669669813	-0.858800259
20.47969758	-4.887428274	-0.587378544
15.3897764	-5.504107359	-0.587897411
14.96459783	-4.745163611	-0.710961369
11.87709012	-2.838600855	-0.788189944
8.496373859	-2.363990079	-0.807413857
7.804367929	-1.868108415	-0.813859569
7.042248357	-2.528208788	-0.818918597
6.565002498	-2.089282402	-0.819442636
6.177011529	-1.720636757	-0.824718299
5.828683264	-1.397130839	-0.830107813
5.302279836	-1.906579803	-0.826927674
5.06325785	-1.614571196	-0.830795854
4.853500553	-1.354705043	-0.836643686
4.648504134	-1.11475765	-0.842637945
4.240899633	-1.528275949	-0.831984785
4.123588753	-1.317784634	-0.841165476
3.985407274	-1.115253347	-0.845525287
